# .PCD v0.7 - Point Cloud Data file format
VERSION 0.7
FIELDS x y z rgba
SIZE 4 4 4 4
TYPE F F F U
COUNT 1 1 1 1
WIDTH 1167
HEIGHT 1
VIEWPOINT 0 0 0 1 0 0 0
POINTS 1167
DATA ascii
-4.9291325 0.99086553 0.87235051 2300182
-4.8797951 0.98108059 0.86539245 1971995
-4.8427372 0.99218374 0.86293006 2823977
-4.6649971 0.98838729 0.87512231 1906190
-4.6221895 0.99416906 0.87546271 1972759
-4.5954924 0.99608892 0.88231122 2365981
-4.5293207 0.99270004 0.8828364 2498598
-5.4830446 1.0155337 0.88097441 6510940
-5.4143791 1.0134633 0.87153101 3153968
-5.3362226 1.0098684 0.88347042 1906450
-5.2768164 1.0136077 0.87363464 2036495
-5.2183614 1.0184554 0.88202286 1511695
-5.1664238 1.0196133 0.87103641 1708304
-5.1257782 1.0302765 0.87818825 1248521
-5.0750046 1.0205781 0.87534034 1642254
-5.0175381 1.0263482 0.87719423 1839375
-4.9773355 1.0292553 0.86760491 1708046
-4.9250231 1.0263625 0.87670392 2497043
-4.8737607 1.0248805 0.8776449 2497812
-4.8228173 1.0278355 0.87403953 3023389
-4.7788482 1.0267726 0.87700057 3154718
-4.7252932 1.0194386 0.8647449 3549469
-4.6784024 1.0332181 0.87491739 3286303
-4.629766 1.0335788 0.8826288 3155231
-4.576201 1.0355846 0.87097001 3220257
-4.5215335 1.0373323 0.87727195 3155234
-4.4724565 1.0342197 0.87693685 3286558
-4.4194593 1.0359843 0.87419915 3220254
-4.3818531 1.0386605 0.876854 3023397
-4.3464336 1.0466827 0.85481292 2891543
-4.2756634 1.0498686 0.86819512 9929088
-3.9244242 1.0242479 0.87995422 8681842
-5.1821713 1.0507993 0.88244247 789264
-5.0090523 1.051198 0.89760184 1248544
-4.9361978 1.0596921 0.87509805 2695962
-4.8967161 1.0627179 0.85660011 2693913
-4.8211169 1.0525277 0.86577821 2563095
-4.7553287 1.0602409 0.8714723 3681307
-4.7250357 1.0609741 0.87226152 2760219
-4.6720028 1.0619814 0.87336034 3023900
-4.6286306 1.0576539 0.87131882 3220759
-4.5759044 1.0558105 0.88055098 3284504
-4.535646 1.0573288 0.88083214 3088928
-4.4799581 1.0592823 0.87174112 3286306
-4.4228249 1.0659354 0.87293506 2891033
-4.3722301 1.0612071 0.87747663 3944743
-4.3294716 1.0651206 0.86599433 7297869
-4.277585 1.0665646 0.87500548 10982801
-4.2259765 1.0685146 0.87279248 11245717
-4.1728659 1.0720303 0.87372267 11245715
-4.1207218 1.0752335 0.87682116 11048339
-4.0786915 1.073827 0.88036388 11640734
-4.0263739 1.0747416 0.87683743 11509149
-3.9730585 1.0728763 0.87617439 11245979
-3.9263322 1.0724473 0.8712759 11377561
-3.8847814 1.0691317 0.89134628 11640216
-4.4774332 1.1119028 0.87351036 2296601
-4.4354591 1.1006904 0.85351229 2427923
-4.2327757 1.1023016 0.88148767 9600890
-5.2037067 -1.7184672 0.92703372 3947576
-5.2153697 -1.6985747 0.91147155 1909023
-5.3084292 -1.6039577 0.94012189 2631449
-5.3266687 -1.5631506 0.94034803 3354162
-5.2835293 -1.573704 0.92438173 2827560
-5.22721 -1.5771396 0.92880601 2630180
-5.060812 -1.5909747 0.90415084 1708319
-5.3829732 -1.5038782 0.94322348 2828343
-5.3081365 -1.5295337 0.92743289 4078393
-5.2712498 -1.5250409 0.92073643 3882036
-5.2073507 -1.5005083 0.91863263 4078927
-5.1787453 -1.5394379 0.94715738 2499617
-5.3178196 -1.4796468 0.92035687 2761517
-5.2639608 -1.4750941 0.93903494 2565934
-5.2081938 -1.4699179 0.92635107 3222840
-5.1761541 -1.4809021 0.90716207 3554384
-5.083149 -1.4711726 0.92258978 2894116
-5.3630791 -1.4163446 0.94752002 3091508
-5.3208923 -1.4299903 0.92526293 2696486
-5.2804184 -1.4071363 0.92633891 2630946
-5.2113981 -1.4010289 0.91256142 2564636
-5.404644 -1.372931 0.94344473 6245958
-5.3723364 -1.3580871 0.92612773 4404791
-5.3271122 -1.3758506 0.9225508 4013117
-5.2766247 -1.3795161 0.92558753 4077627
-5.2327161 -1.3877068 0.90904796 2958639
-5.3576851 -1.3478966 0.922526 5721169
-5.3445134 -1.312325 0.92563176 3748165
-5.2813187 -1.3287171 0.93757057 3881278
-5.2219763 -1.3453184 0.92524648 4804422
-5.1041722 -1.3480958 0.91789424 1969427
-5.4413681 -1.2969509 0.92935407 7628613
-5.3707595 -1.2750796 0.91241336 4539192
-5.3300376 -1.2781801 0.92681241 3287855
-5.2823391 -1.2729807 0.92839676 3551791
-5.2433538 -1.2635229 0.93532419 3092025
-5.1837444 -1.2651095 0.92173588 4477002
-5.3713627 -1.2046859 0.9317342 4605007
-5.3344722 -1.2175703 0.92944586 4999748
-5.1249413 -1.2275796 0.90450203 1314592
-5.366632 -1.1760703 0.91722089 4735303
-5.3269691 -1.1731634 0.91978723 4668745
-5.2841282 -1.1753764 0.92807412 4275789
-5.3319869 -1.1441365 0.9286558 4471615
-2.5848303 -0.6817745 0.91033059 4460810
-2.3337359 -0.65841597 0.9214747 6839664
-1.9746333 -0.65629208 0.92022055 8347796
-2.4976931 -0.55709523 0.93662727 6710675
-2.8902223 -0.5156669 0.93805856 3349563
-2.803689 -0.51833618 0.93653274 6308622
-2.7548251 -0.50907254 0.93431145 5715481
-2.7457871 -0.50041455 0.90193295 4665895
-2.6997943 -0.50024569 0.92821765 2888978
-2.5903032 -0.50263917 0.93816054 8079906
-2.4788635 -0.53317839 0.92358696 6580117
-2.0601385 -0.51151228 0.92460698 14601636
-2.0414112 -0.50790203 0.9312619 14269385
-2.8208313 -0.47706762 0.92772913 2892574
-2.7753093 -0.47939816 0.91599548 3944231
-2.7233808 -0.47767755 0.92723531 3878440
-2.6904731 -0.47988868 0.93062228 2365718
-2.6168594 -0.48624927 0.91086119 2562577
-2.5778158 -0.48176396 0.9269228 6697998
-2.5271318 -0.47341377 0.92344868 3744281
-2.4568384 -0.47872376 0.94960552 6244405
-2.0205715 -0.49132115 0.93671972 9988899
-1.9790891 -0.47755635 0.93094081 11831626
-2.8549833 -0.42409351 0.94515073 3944497
-2.8208189 -0.42296046 0.93472874 3286562
-2.7719157 -0.42150125 0.9259088 4271910
-2.7259505 -0.42470914 0.93424201 3812131
-2.6996684 -0.4170903 0.94966072 2035984
-2.6189556 -0.41341567 0.9116649 2759441
-2.5663753 -0.43826026 0.93056196 6830348
-2.5209818 -0.41908199 0.91779995 3673603
-2.4910455 -0.43448514 0.90119553 5592165
-2.425807 -0.43730915 0.90957886 5844312
-2.0038321 -0.41364384 0.94170582 4527882
-1.9710228 -0.43177089 0.92423451 4730660
-3.0233946 -0.35973179 0.9364745 11839902
-2.8931181 -0.361433 0.91745657 7025686
-2.8175569 -0.3788937 0.94177711 2628374
-2.7720709 -0.37734756 0.93290907 3615264
-2.7296534 -0.3801477 0.93136734 4600360
-2.6591887 -0.37716609 0.90863681 6439720
-2.6304207 -0.3745307 0.92546558 1509384
-2.5661559 -0.36840093 0.93321091 4008491
-1.9720044 -0.38171622 0.9210875 3808282
-2.977181 -0.33579573 0.94671988 5387288
-2.928992 -0.32610327 0.91378105 7630904
-2.889014 -0.32263249 0.92519104 6180160
-2.7681098 -0.34938648 0.94743562 2169620
-2.7326462 -0.32975549 0.9259308 2038036
-2.6787517 -0.31007195 0.91651523 2298127
-2.6319385 -0.3400805 0.90117419 394248
-2.5763533 -0.34157425 0.91570926 5520168
-2.408323 -0.33219212 0.91723615 7298130
-2.2874031 -0.32041261 0.91770571 6639642
-2.1338162 -0.31444076 0.91329801 9796473
-1.859985 -0.32098401 0.91828203 15063265
-1.8496437 -0.31446552 0.9326449 14731999
-1.6759716 -0.31739295 0.91312671 8937260
-1.601913 -0.31619492 0.90407169 13332530
-1.5480866 -0.30128404 0.91481948 16711129
-3.0189571 -0.26992846 0.94315469 7498004
-2.8775768 -0.27894241 0.94979858 7098889
-2.8416555 -0.27633679 0.91316742 4867170
-2.7550673 -0.29503578 0.94162834 4719873
-2.7215021 -0.28404257 0.90263212 10905393
-2.6665149 -0.27283213 0.92158097 459528
-2.6469834 -0.294487 0.9001146 656897
-2.5604973 -0.26583952 0.92816627 11964109
-2.4822967 -0.29690033 0.92652512 3417865
-2.4052958 -0.2789613 0.91619962 7158051
-1.5184057 -0.29104388 0.9157871 9923903
-2.9836946 -0.2174817 0.90824223 8352305
-2.8230522 -0.21152619 0.94540071 1380622
-2.7869315 -0.20657662 0.94848281 2891548
-2.5550554 -0.21646209 0.9410069 2432274
-2.5203981 -0.20478289 0.91480541 3281164
-3.4561865 -0.15093508 0.91939998 2895473
-3.4132302 -0.15835679 0.91338795 526678
-3.099565 -0.18677306 0.90632463 7495511
-2.9890375 -0.19200018 0.92207396 8883552
-2.867312 -0.17713252 0.90804768 3747373
-2.8166523 -0.18150097 0.94381428 3810077
-2.7328863 -0.16932067 0.93356991 1710104
-2.5590973 -0.19861129 0.93837392 131330
-2.5369644 -0.18226323 0.92829537 2364942
-3.4251299 -0.13901004 0.93003887 2431541
-3.3761337 -0.12819847 0.91426247 1643811
-3.2421582 -0.13303392 0.92478812 3812129
-2.8195837 -0.12415957 0.93822414 6116161
-2.7842102 -0.12484947 0.93600905 10526114
-2.7346227 -0.12526628 0.93394631 1050635
-2.41505 -0.13463619 0.915066 9996669
-4.3414998 -0.070169613 0.94279909 5921371
-4.2882271 -0.082683593 0.94329882 4999497
-3.1110215 -0.09390232 0.92731792 12299434
-3.0567193 -0.077219509 0.90718752 10843718
-3.0113864 -0.080880888 0.92206055 9399377
-2.9855528 -0.066896804 0.90374011 6377526
-2.8058257 -0.05963061 0.9465099 3814446
-2.7690046 -0.072377928 0.94310641 5855324
-2.7284012 -0.055994745 0.93247384 526350
-2.5123882 -0.09277124 0.91831779 16638838
-4.4794936 -0.030961473 0.94408691 5657946
-4.4156885 -0.037797172 0.94064862 3946822
-4.3646731 -0.040487234 0.94554746 3420216
-4.3189511 -0.043505881 0.9463805 2169634
-4.2873201 -0.038733978 0.94373798 1380632
-3.1212587 -0.017793145 0.93984216 1509912
-2.9614358 -0.028968701 0.90456396 8286307
-2.9438128 -0.011932559 0.90150058 10064014
-2.8159294 -0.031582747 0.93716013 6704715
-2.7514143 -0.023171794 0.93640363 3220494
-2.7271175 -0.032743268 0.93355155 919816
-4.4741611 0.0055876337 0.94661355 2563362
-4.4137764 0.0055434965 0.94493967 1051921
-3.7254488 0.034214143 0.91485012 10985536
-3.611182 0.030234795 0.93192953 12893356
-3.5747287 0.036325727 0.91806304 13353157
-3.5267153 0.035358049 0.9209004 13220800
-3.4843979 0.040269993 0.90965426 11641512
-3.1592584 0.023718223 0.91800439 5921619
-3.130944 0.024876652 0.92807382 9867924
-3.0848131 0.045732155 0.90549403 7893368
-2.9705467 0.026242865 0.90699047 7100997
-2.9425273 0.034076098 0.90901601 8019790
-2.8524222 0.047701743 0.91420889 12629938
-2.8221126 0.048988469 0.92795128 14605952
-5.704217 0.079148754 0.90598643 6107202
-3.4577866 0.051732093 0.91018039 8874862
-3.3059585 0.052844763 0.91615558 14142669
-3.2964444 0.05480773 0.91109449 12563152
-3.1247952 0.056473918 0.92254877 14668493
-3.0904558 0.06222596 0.91654712 15459551
-2.978214 0.065935507 0.92470628 13614261
-2.9480791 0.051932372 0.90884811 12823696
-2.8267334 0.057050545 0.91958743 13022639
-0.6491186 0.096967191 0.93465745 16513784
-5.6212854 0.12200211 0.90503585 8154224
-5.5545368 0.14792863 0.93112826 7826040
-5.524508 0.1307241 0.92335552 7824751
-3.6662416 0.14556813 0.92503768 787457
-3.6319423 0.14055759 0.91509175 1905676
-3.5758233 0.14164521 0.90243477 2560779
-1.4584177 0.13848191 0.92782104 2761770
-0.65015072 0.12532277 0.94119906 16183275
-5.5665002 0.18143798 0.92497218 7891566
-5.5286741 0.1671782 0.93376428 7498098
-3.6568961 0.16975714 0.91541147 2166027
-3.6282294 0.16683772 0.91134536 2296581
-3.5784352 0.17272595 0.90762794 2493450
-3.5360076 0.17350328 0.90208858 2426887
-1.4559641 0.15197346 0.91739804 6315128
-1.4376491 0.16688004 0.91675955 4605003
-0.66081589 0.16924927 0.93751132 15524318
-0.61293149 0.18793847 0.91189593 16645628
-0.57643217 0.18693544 0.92553967 16645629
-0.52226406 0.19083874 0.92351282 16645629
-0.46830755 0.19284643 0.92437047 16645629
-0.41859546 0.19455658 0.92255193 16645629
-0.36570767 0.19651403 0.92527628 16645629
-0.31820402 0.19649899 0.9277882 16711422
-0.28570396 0.1959583 0.93186891 16711422
-0.22658834 0.19801962 0.94031179 16645629
-0.16547984 0.19774672 0.93959534 16711422
-0.14661241 0.19870652 0.94027281 16711422
-5.6791921 0.24209464 0.92496264 3484219
-5.6311793 0.22549605 0.92301494 2630976
-5.5767231 0.20279741 0.91434062 6514036
-3.662673 0.21556072 0.90818226 2362629
-3.6269619 0.22123443 0.91266042 2231045
-3.5793869 0.22361675 0.91107863 2493193
-3.5199459 0.22414431 0.90461338 2230538
-3.4835954 0.2165506 0.90349752 2165000
-1.5336165 0.22548713 0.91072488 1905683
-0.4148069 0.20028581 0.90171534 16711422
-0.38192558 0.20164606 0.91628397 16711421
-0.3200534 0.20256202 0.91198254 16645629
-0.26973033 0.20322342 0.91883528 16645629
-0.22381744 0.20398916 0.92582434 16645628
-0.17462425 0.20562485 0.9252761 16645627
-0.12335676 0.20662148 0.92739457 16645627
-0.070560254 0.21860577 0.9230482 13748163
-0.034559164 0.22376648 0.93159938 10850443
-5.6550198 0.26060307 0.92462766 3486026
-5.6435471 0.28769588 0.91379255 4868198
-3.7154284 0.28252479 0.91872931 3217932
-3.6661496 0.27919289 0.91332912 2493706
-3.6271255 0.27491438 0.91249871 2297352
-3.5796802 0.27505535 0.91199386 2428170
-3.5248802 0.2719354 0.90743017 2230792
-3.4834104 0.26316229 0.90812194 2034185
-3.4334536 0.28140372 0.90299851 2756101
-1.2220995 0.29083687 0.94327033 6114603
-1.0175966 0.27972323 0.90361464 9259796
-0.10100193 0.29706937 0.926 5058331
-0.06238953 0.25192195 0.92530429 3347470
-0.0326057 0.26550767 0.94054395 2559492
-5.65207 0.30801168 0.92460179 5132394
-5.6394749 0.3340826 0.917292 5329003
-3.6623912 0.32099214 0.92093962 2559748
-3.6246562 0.32574835 0.91422272 2822407
-3.5717335 0.32348773 0.90884221 2690570
-3.5224564 0.32124701 0.91233474 2492680
-3.47773 0.32552266 0.91017348 2558982
-3.4212995 0.32653776 0.90487587 2887688
-3.379384 0.32115725 0.90370578 2557960
-3.3309686 0.32401866 0.90293354 2557958
-0.11296117 0.33224183 0.91176915 2821896
-0.070721582 0.32282725 0.92020911 2230276
-0.044834882 0.30609763 0.90205085 3280386
-5.6451054 0.3697724 0.91674125 6645386
-3.6601884 0.37305847 0.92381883 3085061
-3.6245949 0.37408748 0.91321886 3084810
-3.5762649 0.37061393 0.91365278 3019018
-3.5265584 0.37696549 0.91156852 3018762
-3.4728646 0.37249976 0.91021007 3019018
-3.4224005 0.37323365 0.9071573 3150346
-3.3723111 0.37397704 0.90418464 2623749
-3.3379123 0.36679381 0.90472573 2624260
-3.2777004 0.37622315 0.90063554 2820614
-0.11743038 0.37182721 0.92669058 2427653
-0.086843364 0.36681202 0.93379271 1771266
-5.6646361 0.42066407 0.93110347 9475528
-3.7015562 0.40431488 0.93077821 2561037
-3.6658623 0.42170519 0.92108488 3020044
-3.6257133 0.42154148 0.9181366 3150601
-3.5751398 0.4196949 0.91438377 3084554
-3.5260108 0.42281729 0.91416752 3149833
-3.4768133 0.41957414 0.90656543 3018760
-3.4257092 0.42809191 0.90985084 3478793
-3.3785236 0.42152509 0.90954846 2952966
-3.3251624 0.42054766 0.90901542 2886408
-3.2793808 0.42442822 0.90455776 3017480
-0.12012239 0.42649442 0.91730881 1836546
-0.098098174 0.42364502 0.93842053 1902594
-5.6801009 0.4645119 0.92565548 9607371
-5.6289558 0.48547769 0.91370165 9212617
-3.7098298 0.48384136 0.91383225 3609862
-3.6703613 0.460989 0.93226147 3414542
-3.6218929 0.47316617 0.92045605 3084552
-3.5750244 0.47168878 0.9169687 2887176
-3.5218332 0.47031158 0.91186601 3412233
-3.477879 0.47633663 0.91030443 3280905
-3.4268672 0.47768265 0.91017014 3478536
-3.3845279 0.48089305 0.90564311 3806473
-3.3287652 0.47681808 0.90656632 3544075
-3.2814293 0.47378194 0.90898877 3214856
-3.2357564 0.47370571 0.90266269 3345670
-1.9359484 0.45050716 0.94244903 3352100
-1.8022219 0.47578618 0.900406 3084818
-0.11644145 0.4786683 0.92468321 1574146
-0.099647671 0.47300711 0.93548024 3412483
-5.6625366 0.51929712 0.9216187 9278919
-5.6435785 0.51425147 0.92812651 9277891
-3.6653042 0.53413868 0.93103999 3085065
-3.6252837 0.52378094 0.92459774 3150087
-3.5760908 0.52019322 0.9227007 2952967
-3.5201809 0.51891941 0.91696632 3478025
-3.4730489 0.52327758 0.91040051 3412488
-3.4279871 0.52201742 0.90713567 3609609
-3.3858237 0.53295279 0.90711313 3544072
-3.3229496 0.51891553 0.90912092 3741703
-3.2936854 0.5134595 0.90756315 3478533
-3.2324238 0.53479928 0.90406507 4725540
-0.29137975 0.51154798 0.91372144 2558980
-0.12582541 0.50879896 0.91973579 1574145
-0.09320116 0.50250161 0.94850767 3151110
-5.7179646 0.56368017 0.9160018 9148349
-5.6854353 0.5772444 0.92818254 8949952
-3.7527642 0.5780561 0.94347346 2822663
-3.7200146 0.57869792 0.93394881 2952715
-3.6650772 0.57009614 0.93460506 3084553
-3.6233995 0.57188261 0.92716634 2821639
-3.5752029 0.57266295 0.92588246 2887178
-3.5236382 0.57171786 0.91918546 3215625
-3.4744232 0.57497466 0.91529262 3215880
-3.4255641 0.57405603 0.91104615 3347208
-3.3795033 0.57479024 0.9052031 3412745
-3.3218467 0.57580698 0.90761852 3808009
-3.2767892 0.58052719 0.90239072 4136212
-3.2373738 0.58781266 0.9003101 4529445
-5.7248907 0.62078607 0.91212755 8687293
-5.6861792 0.61911708 0.93269253 8686522
-5.6363249 0.63919139 0.92443252 8356531
-3.6702161 0.61535019 0.94240385 2691334
-3.6256907 0.61923897 0.93343312 3018760
-3.5732701 0.62184757 0.92879373 2822152
-3.522778 0.62219167 0.92301816 3019274
-3.4775577 0.62282586 0.91849536 3281929
-3.427984 0.62146282 0.91335118 3281931
-3.3776386 0.62254 0.90622038 3347979
-3.3233612 0.62556571 0.91093534 4070923
-3.2783284 0.62312388 0.90508944 4268055
-3.2295728 0.61243474 0.9066152 4661782
-5.6703711 0.67306656 0.91280222 8357298
-5.6498423 0.68301553 0.94056118 8358322
-3.6689019 0.67580462 0.9434461 3348499
-3.625813 0.67227715 0.9351812 3085066
-3.57652 0.67059988 0.93229127 3019274
-3.5227261 0.67127454 0.92619985 3479307
-3.4748154 0.67573452 0.9223029 3414028
-3.4232957 0.6727668 0.91716033 3414028
-3.3731363 0.66811693 0.90944988 3677198
-3.3194704 0.67718369 0.90734154 3940368
-3.280549 0.67961073 0.90408844 3939856
-3.2384324 0.67169797 0.90665424 4136972
-2.8577147 0.68288136 0.94630468 3544581
-2.6185811 0.67892683 0.90249783 3018497
-5.6708126 0.72533286 0.91356516 8028076
-3.660471 0.71124357 0.94474018 3808269
-3.6247499 0.72286475 0.93563682 3545871
-3.5756598 0.72118324 0.93192309 3414030
-3.5213218 0.72258812 0.92408544 3808785
-3.4738729 0.72350746 0.92449379 3742990
-3.4250133 0.71993881 0.91985703 3677455
-3.379499 0.72064155 0.91362107 4006162
-3.3237166 0.72037435 0.90929991 4006419
-3.2834799 0.726197 0.9054749 4203029
-3.2284429 0.72891521 0.90246773 4268814
-3.1825156 0.72667426 0.90380031 4664087
-2.8578289 0.71280968 0.9485392 3806725
-5.7212744 0.77679634 0.91324037 8028071
-5.6848059 0.77507615 0.92596698 7895972
-3.6623139 0.78354019 0.94062793 4596239
-3.6240294 0.77321452 0.93944627 4072213
-3.5742581 0.77204019 0.93473196 3809299
-3.5218072 0.77348095 0.93224984 4203541
-3.4747732 0.77168554 0.92844725 4138003
-3.4246209 0.77369887 0.92494249 4269076
-3.3739405 0.77301091 0.91722965 4400664
-3.3189905 0.76947844 0.91347176 4269332
-3.2748837 0.77287978 0.90981239 4269330
-3.2295406 0.77412766 0.90549499 4269329
-3.1780643 0.77500355 0.90520918 4203541
-3.1260619 0.77533638 0.90288645 4861211
-5.7002144 0.80875552 0.93290222 7699112
-5.6630797 0.83006048 0.9290778 7368576
-3.7056928 0.84830821 0.94179547 11507566
-3.6717162 0.83551759 0.9312495 7493192
-3.6274087 0.82042235 0.9397611 4532511
-3.5770411 0.82841092 0.94365817 4466714
-3.5308421 0.82431763 0.93567431 4533019
-3.4770577 0.82813984 0.93564969 4466968
-3.4254098 0.82394338 0.92954701 4401178
-3.3797019 0.82288581 0.92213112 4598042
-3.3256066 0.82644874 0.9166612 4335384
-3.2822797 0.82419866 0.91176444 4400921
-3.2269478 0.82457733 0.90658873 4203800
-3.1842763 0.81738061 0.90614313 4466709
-3.1318212 0.81720906 0.90983003 5058075
-5.7185388 0.85441035 0.91172528 7430249
-5.6789126 0.88226038 0.92144406 5983815
-3.7115798 0.86572987 0.94028115 9995652
-3.6595788 0.86111534 0.94731903 4468513
-3.6006444 0.85274607 0.94373065 4925198
-3.5778668 0.86165226 0.93347198 6837317
-3.5194027 0.86003739 0.94295806 4730912
-3.4837935 0.86384195 0.9451499 4729118
-3.4241292 0.86667919 0.93548584 4729886
-3.3824246 0.86133128 0.9276337 4730139
-3.3254676 0.85851932 0.92138451 4401952
-3.2743795 0.85527927 0.91535813 3810078
-3.2297761 0.85595483 0.90534198 3940627
-5.7506542 0.90113753 0.90455949 5719848
-5.7278247 0.92448109 0.91379368 5653037
-5.672864 0.92385137 0.92329049 5653053
-5.6294756 0.93260348 0.92202967 5785921
-5.137579 0.94649678 0.91402531 3683361
-3.6268849 0.94207489 0.92718554 7102051
-3.5878143 0.94634449 0.92176151 5849937
-3.5220075 0.94061816 0.91763312 6639697
-3.486927 0.94359618 0.91480035 6242900
-5.6754827 0.95515287 0.94354415 5390383
-5.6442771 0.9807657 0.93980473 6838342
-5.5693278 0.99196476 0.93241495 7298127
-5.5223155 0.99006945 0.92013484 7495001
-5.4787703 0.98845351 0.91911823 7956076
-5.4176064 0.99625921 0.92567456 6313820
-5.361692 0.98090273 0.92961061 5786187
-5.3446593 0.98971367 0.93728381 5128516
-5.2783237 0.99084634 0.92120504 2627361
-5.2170882 0.99076086 0.93799347 2167824
-5.1620474 0.99044049 0.94033688 2167310
-5.1190591 0.98374331 0.90933788 1774106
-5.0801916 0.99843544 0.93357694 1312262
-5.0208235 0.98512691 0.92702025 1446170
-4.9822206 0.99286044 0.91625834 1905938
-4.936799 0.99574441 0.90280604 2364964
-4.8319321 0.99827105 0.93676627 1642504
-4.7782803 0.99846154 0.92254162 1576454
-4.7302446 0.99454159 0.91406983 1839623
-4.6919785 0.98870808 0.91443598 2101516
-3.8861537 0.99830306 0.94785136 8942698
-3.6744308 0.98206359 0.92656869 4795424
-3.6178105 0.97277874 0.9249081 5322020
-3.5827093 0.96179736 0.91966057 5519163
-3.5286503 0.95729882 0.91694659 5847330
-3.4834704 0.95542777 0.91713357 6176067
-5.4697056 1.0122609 0.9378891 7497050
-5.432076 1.0123316 0.91329193 5392457
-5.3708286 1.0008605 0.92531818 3878706
-5.3184595 1.0095173 0.90813887 1904404
-5.2868605 1.0046146 0.9271881 2232851
-5.2255468 1.015198 0.92799109 2036752
-5.1727467 1.0091766 0.92402345 1708046
-5.1252074 1.0160269 0.91995281 1641738
-5.0689535 1.0220126 0.92481118 1707792
-5.0211983 1.0185413 0.93156779 2036756
-4.9745088 1.0231955 0.9252966 2299412
-4.9180379 1.0239037 0.92630863 2497297
-4.8771858 1.0297444 0.9315331 2300436
-4.8319268 1.0264297 0.92589378 2694933
-4.7757874 1.0246897 0.93106097 2891802
-4.7278914 1.0330341 0.92341858 3220512
-4.6756196 1.0304751 0.92553961 3088673
-4.6296701 1.029659 0.93053061 3220767
-4.5737038 1.0380883 0.92336679 3351835
-4.5242071 1.032129 0.92353314 3351584
-4.4774051 1.0361527 0.92590827 3089179
-4.432384 1.033147 0.92353684 3352351
-4.3717937 1.0393635 0.92699498 4536107
-4.3188295 1.0464652 0.93029422 7562848
-4.2778668 1.0463138 0.92247963 10916487
-4.2319598 1.0438991 0.91721523 10983057
-4.1927223 1.047592 0.936544 11836826
-4.1364603 1.0422781 0.91755927 11115410
-3.9697719 1.0379117 0.91275191 9338483
-3.9354959 1.0345542 0.91862744 9076089
-3.8807335 1.0444213 0.94007671 9799547
-3.717231 1.0141391 0.94018853 6174759
-3.6940091 1.0089412 0.9422394 5518102
-3.6412568 1.0071115 0.9346202 8543288
-5.1087704 1.0505785 0.92312396 1247245
-5.0718951 1.0521885 0.90239656 1379342
-4.8535476 1.0589732 0.92169005 3682344
-4.825973 1.0574354 0.93033576 3023643
-4.7800708 1.0638516 0.92634249 2826009
-4.7280211 1.0596998 0.91476387 3482912
-4.6663542 1.0539174 0.93451023 3219743
-4.6308784 1.0539551 0.91931814 3155222
-4.5822573 1.0528054 0.91908836 3220007
-4.5244908 1.0564173 0.92650759 3483680
-4.4839053 1.0554209 0.93331331 3023637
-4.4258542 1.0598288 0.92828679 3154458
-4.3738856 1.0601006 0.93069732 5851970
-4.3221607 1.059025 0.92164141 9404283
-4.2751331 1.0676067 0.91970938 10719627
-4.2269034 1.0721591 0.91536605 10719373
-4.1743612 1.0637492 0.91970098 11179412
-4.1256857 1.0710529 0.92888629 10324358
-4.0747628 1.0706079 0.92897731 10653579
-4.0251145 1.0712688 0.92189533 11048080
-3.9757009 1.0668259 0.92323524 10587533
-3.9257009 1.0709381 0.92982858 10521994
-3.8805132 1.0671512 0.92862058 11837850
-3.832834 1.0835316 0.93152523 10259075
-4.2325754 1.1705586 0.92361933 9667200
-5.362205 -1.5751307 0.98883843 4012852
-5.3367167 -1.5672729 0.976183 4339754
-5.2687826 -1.555835 0.95205808 2959153
-5.2142682 -1.5749667 0.97480786 2499882
-5.1770334 -1.55733 0.96851242 2630700
-5.4081841 -1.5191302 0.95475906 2827826
-5.3754382 -1.5247531 0.98505503 2891585
-5.3314476 -1.5278721 0.97322941 3880769
-5.2734804 -1.5157617 0.98581749 4144708
-5.2287598 -1.5236603 0.97403049 3420989
-5.1847124 -1.5196879 0.9594717 2432819
-5.3548336 -1.4510466 0.95420206 2629677
-5.321691 -1.4803386 0.99426174 2562849
-5.2819567 -1.4814374 0.9777292 2958898
-5.2495146 -1.4639343 0.95212543 2564402
-5.3692131 -1.4288843 0.99034703 3552035
-5.3343954 -1.4180973 0.97161359 3287352
-5.2113018 -1.4051536 0.99633348 2431798
-5.4321699 -1.3941827 0.96656263 3877161
-5.3720441 -1.376429 0.96860284 3817278
-5.328969 -1.3770854 0.96560335 4738122
-5.2725482 -1.3762131 0.97285938 4473672
-5.2400599 -1.3955992 0.97205865 2893346
-5.3671231 -1.3129238 0.95843756 2830908
-5.3198299 -1.3249972 0.96092665 3816506
-5.2505951 -1.3010997 0.96646488 4145987
-5.2344942 -1.3256619 0.95685375 3882563
-5.3641462 -1.2872221 0.95853865 4732465
-5.3294973 -1.2877865 0.97012568 3353651
-5.2778263 -1.272446 0.98034525 2566442
-5.3216653 -1.220047 0.9874562 4538196
-5.2941904 -1.202891 0.98460829 4079157
-5.4108706 -1.161392 0.96490526 4597064
-5.3805361 -1.1759676 0.97783059 4471864
-5.3253961 -1.1738356 0.97810137 4274490
-5.2604656 -1.1908659 0.97042 4406836
-5.3687892 -1.1485909 0.96061373 3487802
-5.3346682 -1.1441431 0.95689344 4340801
-2.6512527 -0.71240908 0.99958336 5051178
-2.6253569 -0.71263891 0.98373657 8355500
-2.2825742 -0.71260351 0.99532562 6827037
-4.5110445 -0.6505639 0.99841225 2958382
-4.3852162 -0.67414182 0.99205637 1380404
-2.6048598 -0.69717592 0.95490217 4330001
-2.5684767 -0.66653657 0.97230566 5785188
-4.4672842 -0.62527895 0.97900748 1116949
-4.4210873 -0.64308321 0.97913134 1380385
-4.3719654 -0.61537361 0.97440273 721694
-4.3479462 -0.61792231 0.98508108 656655
-2.5552492 -0.62502879 0.97671103 6776982
-2.5412152 -0.60936087 0.96446002 6447495
-4.4195404 -0.5777272 0.98034579 2364182
-2.5366704 -0.58846897 0.95953107 6183040
-2.2758737 -0.57168591 0.96444976 5978896
-2.7744813 -0.52110195 0.97694761 4337955
-2.7385261 -0.5174005 0.98540354 3549984
-2.6610129 -0.50608814 0.97531217 2562584
-2.6425104 -0.51043344 0.97184491 4599070
-2.0734568 -0.52134043 0.95084739 15389365
-2.8592005 -0.4682847 0.96729827 3219483
-2.8402195 -0.47728357 0.95467609 2102805
-2.7063513 -0.46736121 0.95590621 2957080
-2.6816897 -0.47963646 0.97537577 1905424
-2.6466751 -0.49287099 0.97692156 722952
-2.5709691 -0.47975311 0.97361296 3741953
-2.4799993 -0.49102008 0.99393517 5522753
-2.0288496 -0.48105809 0.98683119 5514259
-1.9821568 -0.46576938 0.96796674 2428683
-2.8601696 -0.41468939 0.97391605 3745314
-2.8358965 -0.41240191 0.95793444 2628117
-2.717761 -0.41787326 0.95804894 3154970
-2.6862242 -0.4228211 0.97822559 2496791
-2.5843792 -0.43039405 0.97612596 7291408
-2.4651067 -0.44520125 0.95776939 5920364
-2.4404788 -0.42567396 0.97390759 6184033
-2.1763077 -0.44008592 0.95676214 16570513
-2.0155942 -0.42579246 0.96767491 2560788
-1.981456 -0.4164643 0.9555034 3943470
-4.2677207 -0.37778196 0.99522209 2301718
-3.0522795 -0.3657043 0.96837932 13351883
-2.8585541 -0.37479275 0.9728241 3483159
-2.8278689 -0.36774078 0.95969331 2694164
-2.7806005 -0.35729396 0.95457721 2498322
-2.7193539 -0.36921412 0.96450615 3286303
-2.685662 -0.37870741 0.97409129 3156260
-2.5898118 -0.35429627 0.97009575 1971214
-2.5387557 -0.35778189 0.98041844 6899509
-2.4070055 -0.36944333 0.96318656 12694424
-4.3128891 -0.33396876 0.98795265 2626845
-4.2697039 -0.34445783 0.97879243 2431007
-4.2147474 -0.33282986 0.9880268 1971477
-3.1167312 -0.32416752 0.9974252 11905414
-2.9169106 -0.33712012 0.9721452 9805260
-2.813226 -0.33648366 0.97899902 1971216
-2.7770402 -0.32724437 0.98038423 1314055
-2.7377245 -0.33369669 0.98076999 1905424
-2.5724101 -0.31353897 0.97552776 4464139
-2.4071178 -0.31631732 0.98342639 7623206
-2.360209 -0.33240968 0.98172128 5525819
-2.3210778 -0.32818323 0.98512089 8080196
-2.2626824 -0.32762104 0.97564006 5789037
-2.1922212 -0.34054059 0.96227872 12097465
-1.7016462 -0.32320487 0.97139907 11896174
-1.6187967 -0.30852836 0.9577927 13346421
-1.5781271 -0.31472707 0.99220818 10259016
-4.3077259 -0.2776157 0.99452662 2037525
-4.2659044 -0.29190028 0.97946835 2038040
-4.2154846 -0.29200274 0.98060423 1972503
-4.1859007 -0.28097034 0.99263787 2038282
-3.0349922 -0.27149543 0.97906387 8552527
-2.9213662 -0.29384685 0.99168479 8884608
-2.8028595 -0.25651622 0.96466881 2761233
-2.7666903 -0.28871682 0.98419058 1577482
-2.710722 -0.27347311 0.97974253 1313555
-2.5737829 -0.25649557 0.95085287 10000332
-4.2651305 -0.24224387 0.97673976 2038033
-4.2241488 -0.23503119 0.97185695 1775903
-4.1777592 -0.24026518 0.99702096 1710363
-2.8379176 -0.20110333 0.95693856 788737
-2.7817638 -0.23279092 0.97198957 4142900
-2.7320375 -0.24547072 0.99708533 5393730
-2.5968907 -0.22579387 0.99169838 590337
-2.4038208 -0.24435255 0.97294492 9194271
-4.3965912 -0.16212408 0.99336982 3613733
-4.311327 -0.17182925 0.98737979 1445657
-4.2736521 -0.19456919 0.97871637 1774108
-4.2218075 -0.18795297 0.97065014 1643545
-4.1826434 -0.19232421 0.99713826 1643799
-3.4344511 -0.15117583 0.9750374 4470858
-3.0314398 -0.18574287 0.96069801 7168043
-2.8564203 -0.15480888 0.98947382 3552264
-2.8349087 -0.16285892 0.98112822 5854005
-2.5649107 -0.16671653 0.99292803 3868704
-2.5441813 -0.15742797 0.95840526 4005649
-2.409646 -0.19041637 0.96153551 9003629
-4.3598404 -0.11587949 0.99918222 4010822
-4.3270979 -0.14412448 0.99028623 2037035
-4.2792063 -0.12785614 0.96896088 2892080
-4.2224569 -0.1399712 0.96687108 1840412
-3.4835629 -0.14724302 0.99095249 4538706
-3.4375014 -0.14474195 0.99461657 1971988
-3.3350298 -0.13515648 0.96021891 3023917
-3.2630463 -0.13573477 0.9845283 4142103
-2.8363321 -0.1113297 0.96078247 6051897
-2.733691 -0.11174226 0.95089185 853782
-4.3125577 -0.094139665 0.95911026 4868167
-4.2273769 -0.089049868 0.96307075 1841432
-4.1801367 -0.055300985 0.9983058 723218
-3.2348759 -0.096159279 0.97801065 10054477
-3.1034334 -0.089990288 0.99082661 5714729
-3.0821493 -0.088769078 0.97765303 5325106
-2.8280444 -0.074719615 0.96835691 3684129
-2.740869 -0.09767212 0.95644891 722708
-2.5217321 -0.099742912 0.98238957 7481101
-4.4918795 -0.030635316 0.95149016 5723740
-4.3998337 -0.020745907 0.95668507 1708846
-4.3224459 -0.0017078407 0.97308326 657936
-4.2656221 -0.022763785 0.97780007 920084
-4.2152781 -0.044616867 0.98491478 854550
-3.238307 -0.0053316653 0.99710214 2635052
-3.1335218 -0.014648326 0.9610678 1183261
-2.831588 -0.024785774 0.95481408 7295058
-4.5070477 0.024823781 0.95900512 4601651
-4.4819512 0.033243086 0.95394289 3544874
-4.4262228 0.03367785 0.97252464 2958111
-4.3811064 0.010940086 0.9699325 854801
-3.5758131 0.028743804 0.97933578 12957365
-3.5485754 0.029579423 0.9668293 12496561
-3.202534 0.048214987 0.98420668 12101695
-3.1856108 0.031247091 0.96008974 7235926
-2.8135843 0.010739081 0.96356201 328193
-5.5722189 0.089449644 0.97911233 8478543
-5.4935436 0.097473405 0.99485826 9336698
-4.560976 0.072069995 0.98876494 4928837
-4.5330653 0.055221792 0.97113943 5387558
-3.2054677 0.053331643 0.98614645 13351305
-3.123137 0.056252487 0.95468527 13692061
-1.432094 0.09225639 0.98248327 1971986
-0.64733076 0.09883368 0.96174169 16447475
-5.5749621 0.11991949 0.97716039 7758703
-5.5208902 0.1198616 0.97721261 7825514
-1.4614681 0.11347815 0.96013349 656900
-1.4390353 0.11133697 0.96759462 657413
-0.63702792 0.12340769 0.96428007 16050917
-5.5763774 0.18295284 0.96794575 7036262
-5.5264702 0.17210343 0.96993065 7693677
-0.65283281 0.16754815 0.95833123 16711422
-0.62787253 0.16493075 0.96836841 13811902
-0.56376702 0.18453248 0.97074878 16645626
-0.52500492 0.18472965 0.97486579 16645626
-0.47220922 0.18816017 0.97459805 16645629
-0.42084607 0.19024096 0.97643417 16645627
-0.37313768 0.19319032 0.97283715 16645370
-0.32729378 0.19455297 0.96721125 16645628
-0.27227393 0.19462267 0.97456372 16645629
-0.22734039 0.19643557 0.9833703 16645629
-0.18033028 0.19639519 0.98512709 16645629
-0.13915753 0.19638084 0.98506021 16711422
-0.090369254 0.19687149 0.98410249 16645629
-0.042101718 0.19783357 0.98713243 16711422
-5.6653061 0.2461586 0.9569304 3618638
-5.6351852 0.22692333 0.97090751 2236724
-5.5944448 0.20278718 0.98806703 5724004
-1.5780039 0.23256449 0.99104595 1380365
-0.30454582 0.20038089 0.9606514 16645368
-0.25921741 0.2011106 0.96765918 16513524
-0.22122143 0.20156631 0.97236848 16447473
-0.16691443 0.20305237 0.97266752 16513522
-0.11550675 0.20301239 0.97205049 16579321
-0.070420936 0.20511506 0.97400701 16579061
-0.021505028 0.22282976 0.97109002 10654349
0.01328338 0.22140405 0.98740554 9467505
-5.6723514 0.27916992 0.97159767 4540002
-5.6326261 0.29190019 0.99854696 5460848
-1.6074786 0.25850105 0.98789489 656647
-1.5914662 0.25173569 0.99695134 787975
-1.480423 0.28710335 0.99110615 8351267
-0.081408545 0.29856911 0.98075002 5058089
-0.017684579 0.25470471 0.96718293 3479309
0.01604335 0.25025678 0.99138939 1639684
-5.6741047 0.34205249 0.97891271 5855097
-5.6371889 0.3256374 0.97784901 5790075
-1.0387431 0.30705869 0.9836117 11770001
-0.10302294 0.32902887 0.95627141 2887939
-0.077503942 0.3246538 0.97602093 3215878
-0.029254004 0.31302717 0.96774518 2295301
-5.6629677 0.39932251 0.96819484 9739985
-5.6262088 0.36882886 0.97569054 7631513
-3.6652753 0.36451057 0.95201892 2427905
-0.10693772 0.37576777 0.95609105 3149319
-0.077628545 0.37486485 0.97305286 2427395
-0.049989998 0.37512136 0.98730695 2098690
-5.6644378 0.44554138 0.96864069 9739470
-5.6334119 0.4052985 0.96870387 9541832
-3.6622071 0.42559841 0.95275956 2690565
-3.6491308 0.42486826 0.95503145 2493710
-0.10345992 0.40337178 0.96776468 2755587
-0.073011793 0.42154178 0.97639173 2164738
-5.6696844 0.4934355 0.98365039 9475276
-5.6447663 0.45226792 0.97642004 9607372
-3.6599965 0.45382372 0.95511609 2494465
-3.6395538 0.46289104 0.95341814 2624779
-0.10197762 0.47909725 0.95472264 1114881
-0.073886193 0.4672417 0.97628427 2033922
-5.6625156 0.54476184 0.97744858 9278408
-5.6455164 0.53537583 0.98811567 9146816
-3.6521354 0.53832591 0.96528059 2493446
-3.6241541 0.52319342 0.95603931 2492932
-0.10430315 0.52158952 0.95631683 1180417
-0.080153845 0.51167375 0.9737981 1968386
-5.718749 0.58297312 0.95772594 9013957
-5.6750083 0.57275981 0.97345036 9014719
-3.7315309 0.56902772 0.98495364 2560264
-3.633446 0.57033777 0.95397043 3215368
-2.5736141 0.5954048 0.97450262 3611146
-5.6770949 0.62027431 0.98792136 8751288
-3.7208025 0.64116812 0.95747507 4205329
-3.6633377 0.6398955 0.95178509 3481366
-3.6368797 0.61985445 0.95991528 3084296
-5.7135496 0.66177219 0.96183455 8423859
-5.679235 0.66802329 0.98252267 8357554
-5.626627 0.65692008 0.96556801 8553909
-3.7213666 0.65787095 0.95311451 4995108
-3.6661437 0.67760855 0.95795357 3348751
-3.6271203 0.67416042 0.96530968 3282964
-3.5888808 0.66708958 0.95031905 2887945
-5.7064357 0.70534098 0.97798318 8225712
-5.6765194 0.72580767 0.96609592 8225453
-3.6701627 0.71698916 0.95210016 3809310
-3.639276 0.7116822 0.96289939 3544844
-3.5871668 0.71772784 0.95705169 3151370
-2.9147165 0.70975637 0.95682871 3675140
-5.6718493 0.78194183 0.97439349 7961510
-5.6459551 0.76158708 0.95205438 8158634
-3.7090116 0.76397198 0.97523034 4667937
-3.6704323 0.7696116 0.95886815 4335648
-3.6269956 0.77580649 0.95295531 4268820
-3.571723 0.76421034 0.95746511 3742739
-5.7160659 0.82564557 0.96636152 7436960
-5.6536202 0.84308749 0.99426305 6837845
-5.6322126 0.81272817 0.96313995 7829405
-5.5987272 0.80777174 0.97322333 7763880
-3.6741266 0.82807577 0.96327519 4467230
-3.6281152 0.82421136 0.95423639 4466966
-3.5797713 0.8247636 0.95748013 4138772
-3.4862406 0.81795555 0.95712352 5189925
-5.7155156 0.85012889 0.98211098 7433872
-5.6769438 0.88028669 0.97354478 6048060
-3.8047824 0.8918786 0.99333453 9930881
-3.7218056 0.88039237 0.98626912 6376485
-3.6653054 0.85686582 0.95955861 4992799
-3.6107538 0.85749459 0.95993817 3941406
-3.5754287 0.8638823 0.95835263 5189913
-3.5369473 0.85874718 0.9562254 4599072
-3.4821386 0.85768664 0.95425832 5057310
-5.7247496 0.90562004 0.99063194 5784377
-5.6780157 0.93030727 0.97495568 5258299
-4.9530082 0.94827873 0.98394227 855555
-4.6660957 0.92987031 0.98965061 1445130
-3.4438467 0.91796386 0.97258031 14598060
-5.7198105 0.9791196 0.99516809 5850685
-5.6997638 0.98517549 0.97404277 5983318
-5.6257105 0.97856253 0.96042699 6707022
-5.5701761 0.99213761 0.95271629 7626852
-5.4742036 0.98357385 0.98149544 7298393
-5.4245505 0.98807687 0.97809309 7562081
-5.3866854 0.98827761 0.97949231 6641490
-5.3168879 0.98672533 0.99058509 5063219
-5.2654886 0.99269778 0.96694672 2303000
-5.222373 0.98634815 0.98234779 2365209
-5.1727047 0.98501176 0.9779774 1970701
-5.1311145 0.98709953 0.98645747 1708563
-5.0710807 0.98652023 0.97554123 1511183
-5.0128303 0.99007666 0.9842881 1445897
-4.9086003 0.99377972 0.97787344 2036741
-4.8798447 0.99460262 0.96535707 1838096
-4.8351097 0.99513024 0.98817575 1576975
-3.6692717 0.97927123 0.95213038 4796700
-5.5984726 1.0032235 0.95581019 7495510
-5.4008245 1.0071732 0.99609911 6971996
-5.376503 1.0084728 0.97360659 4602431
-5.3200712 1.0055203 0.97867465 2036506
-5.2576561 1.0028629 0.98388255 1904913
-5.2255664 1.0080675 0.97108382 2166804
-5.1770597 1.0154104 0.98027492 2035473
-5.1264367 1.0164068 0.97770089 2167308
-5.0659251 1.01355 0.97464114 1642257
-5.0237751 1.0194763 0.97300428 2103059
-4.9756732 1.0174495 0.98020357 2233875
-4.9292936 1.0219694 0.97692776 2234387
-4.8715467 1.0243123 0.97235566 2562580
-4.8217168 1.0270603 0.97305042 2826006
-4.7753434 1.02711 0.97962523 3022875
-4.7249699 1.0248164 0.97441638 2891034
-4.6775212 1.0252492 0.97242904 3220514
-4.6309052 1.0357617 0.97502995 3154715
-4.578001 1.0331011 0.98200953 3089179
-4.5269122 1.0378243 0.97050905 3483426
-4.4822688 1.0367377 0.97906303 3812895
-4.4249086 1.0430616 0.97483176 8351846
-4.3798504 1.0395148 0.97557324 9733247
-4.3332539 1.044143 0.97330695 10654605
-4.2728529 1.0418963 0.96934605 10983054
-4.2304902 1.0428566 0.9764744 11179151
-4.1715097 1.0460473 0.99226189 10653842
-4.1134529 1.0444653 0.99207246 9996670
-4.0755634 1.046809 0.96859562 10719633
-4.0056677 1.0481215 0.96159035 11376789
-3.9690661 1.0434988 0.98441327 10718349
-3.9281769 1.0450268 0.98429716 9601667
-3.7753329 1.0311475 0.97399962 6637878
-3.7329426 1.0149708 0.96184266 5781801
-3.6851749 1.0154136 0.95336705 8412489
-4.780407 1.056277 0.95784426 2563354
-4.6701384 1.0552814 0.96111917 3746598
-4.6155128 1.0521196 0.95439237 3746332
-4.5744419 1.057135 0.98347622 4007709
-4.5256581 1.0552487 0.97094172 3023385
-4.4672651 1.0560369 0.9751597 4536626
-4.4217982 1.0589181 0.97864622 7627863
-4.3807364 1.0603461 0.97273415 9667459
-4.3267088 1.0611142 0.97339153 10061444
-4.2741079 1.0619702 0.9854663 10521993
-4.2253032 1.0644211 0.97372842 10653577
-4.172452 1.0666857 0.97761208 10521735
-4.1265535 1.0659776 0.96654284 10719117
-4.0776014 1.0676861 0.97537893 10719373
-4.0221243 1.0745058 0.96503294 11311509
-3.9781604 1.0670675 0.96932608 11377046
-3.9169044 1.0704299 0.97339565 10192772
-3.8769617 1.0700957 0.97371525 9666167
-3.8210521 1.0627193 0.97236252 11113096
-3.7748551 1.0579039 0.98227596 11050375
-4.0815001 1.1075546 0.97421974 10653843
-3.9769361 1.1416564 0.98296386 9732998
-4.2061491 1.1747212 0.96053678 10323863
-5.2246981 -1.6113733 1.0426854 2367525
-5.3697433 -1.5733156 1.024647 3947048
-5.2882462 -1.5549048 1.0208904 3416876
-5.1965661 -1.5865053 1.0159317 2499625
-5.3617187 -1.5337033 1.0350741 3745580
-5.3412533 -1.5105604 1.0179859 3353406
-5.2713547 -1.5217512 1.0398331 2762540
-5.2208519 -1.5200969 1.0306355 2631979
-5.199389 -1.5150355 1.0160245 2631209
-5.4015474 -1.4815588 1.0173998 2301477
-5.3688908 -1.4722942 1.008924 2432282
-5.3316927 -1.4788914 1.0204597 2497571
-5.2685547 -1.4822505 1.0301499 3154996
-5.2290359 -1.4733124 1.0153635 2892849
-5.1966143 -1.46913 1.0105177 2958646
-5.3196363 -1.4422864 1.0015565 2367011
-5.2976351 -1.4094367 1.046717 2762278
-5.2299252 -1.4178493 1.0175654 2431793
-5.1775131 -1.4438106 1.0134994 2500133
-5.3759046 -1.358566 1.0447531 6712431
-5.3196225 -1.3781773 1.0164468 4604988
-5.270155 -1.3739184 1.0301418 3091496
-5.2331858 -1.3980669 1.0382369 2628118
-5.4408836 -1.3010293 1.0490267 9208679
-5.3623657 -1.3287721 1.0427135 2502731
-5.3142519 -1.3214592 1.0333414 4474185
-5.285161 -1.3216778 1.0165387 4667701
-5.2425222 -1.3344705 1.032115 3419185
-5.4151759 -1.295121 1.0241929 6707527
-5.3724294 -1.2792664 1.0180585 4339273
-5.3240585 -1.2753487 1.029313 5324625
-5.2554293 -1.2827971 1.0285859 3221054
-5.2131305 -1.2831986 1.0044165 4868166
-5.3504515 -1.2145797 1.005495 4668725
-5.3269968 -1.2249343 1.0147111 5327963
-5.2840481 -1.2182233 1.0030599 3944262
-5.3724442 -1.1814842 1.0297284 4339516
-5.3339548 -1.1801944 1.0207089 4143158
-5.2833924 -1.1769269 1.019611 4142398
-5.2478161 -1.149864 1.0397404 4272946
-2.7616658 -0.75057191 1.0314119 4982021
-2.6773109 -0.72022521 1.0297439 6837595
-2.3578253 -0.70007116 1.037622 8936238
-2.3046248 -0.73123568 1.0324788 4395544
-4.3692565 -0.67548198 1.0113473 1642514
-4.3153763 -0.67182291 1.0283631 1380883
-4.3016715 -0.60613793 1.0157552 525579
-4.2851315 -0.62459278 1.0242648 526344
-4.3558464 -0.58902353 1.0029187 394249
-4.3132739 -0.57744849 1.021821 328196
-4.5004139 -0.52753413 1.0371456 7360081
-4.4729662 -0.52385247 1.0292706 6965573
-4.4191313 -0.52922285 1.0108383 6965809
-4.3636227 -0.52696991 1.0252897 6042414
-4.3193798 -0.54986018 1.0462184 2494477
-2.8550801 -0.53967643 1.0247431 4074832
-2.8356328 -0.5346809 1.0260407 3351586
-2.7716496 -0.53172386 1.0206478 5192730
-2.7288899 -0.53021431 1.0244415 3347989
-2.6698289 -0.51659226 1.0203478 3350808
-2.6457872 -0.51297158 1.0306158 6833440
-2.5249593 -0.50478542 1.029057 5326116
-2.157907 -0.53741741 1.0357834 12232844
-2.0578563 -0.51845032 1.0146079 10767434
-1.9496748 -0.54520303 1.0406522 10638126
-4.4738655 -0.48422581 1.0429599 5322033
-4.4318652 -0.49544722 1.0303196 6110520
-4.3825846 -0.48754534 1.0435579 6306873
-2.6738021 -0.47443211 1.0161362 3484715
-2.631938 -0.4692612 1.0258577 6632722
-2.5620351 -0.47451037 1.0174308 853249
-2.4774058 -0.48765516 1.0427347 4538701
-2.4060085 -0.4710781 1.0260512 7686686
-2.026474 -0.45285526 1.0187012 4863286
-4.3577685 -0.44307205 1.0453517 3417118
-4.3361955 -0.41547686 1.0300384 3154201
-4.2536354 -0.42937544 1.0467525 2697251
-4.2427082 -0.41326126 1.0268307 2499887
-2.7094245 -0.44820037 1.0314424 4471103
-2.6778841 -0.42630398 1.0174406 4404792
-2.6159623 -0.42358148 1.0212646 5384719
-2.4074562 -0.41104993 1.0105491 2827289
-2.0938573 -0.40964854 1.0281036 12755845
-2.0225184 -0.40942481 1.0020504 787983
-4.4191833 -0.36188021 1.0497229 3612192
-4.331986 -0.39297277 1.0079062 4072227
-4.2929325 -0.39508912 1.0071789 2892579
-4.2326283 -0.38808239 1.010783 2301467
-4.1998734 -0.38274607 1.0334697 2366499
-3.0209649 -0.37149072 1.0157063 8028717
-2.9337893 -0.35712588 1.0265228 9010240
-2.6846101 -0.37878692 1.0183812 4273457
-2.6143298 -0.36008877 1.0138154 262404
-2.5587471 -0.35085896 1.0253525 6834956
-2.40832 -0.36071631 1.0345309 2895149
-2.3825881 -0.35824129 1.0165716 6966836
-2.0786371 -0.38661361 1.0268112 7822946
-4.191649 -0.3450664 1.0313951 1971737
-3.1392598 -0.34508687 1.0185699 11314053
-3.0274282 -0.34377253 1.034368 6835219
-2.994905 -0.32852089 1.0376908 7094082
-2.9277864 -0.32621163 1.0256209 8220270
-2.8034503 -0.30998778 1.0162885 722179
-2.7700107 -0.31230894 1.0074403 1445387
-2.7296391 -0.32531133 1.0146972 3352356
-2.6953869 -0.34304842 1.0027525 2564110
-2.5591965 -0.3394495 1.034372 6039811
-2.402704 -0.30660656 1.0091805 5710619
-2.3633084 -0.34693164 1.0254428 12365732
-1.6630472 -0.3290416 1.018783 10453075
-1.6315384 -0.32491207 1.0058422 14535335
-1.5872947 -0.32780239 1.0354381 7476226
-4.4909143 -0.27044901 1.0413498 4861192
-4.4035444 -0.28757647 1.0104282 2693136
-4.3748035 -0.29409099 1.0122952 1444876
-4.3394995 -0.27518684 1.0041033 1905186
-4.1865287 -0.29512092 1.0301738 1643040
-3.0673242 -0.29074225 1.006019 10002824
-2.8078628 -0.2839815 1.04721 918289
-2.7544799 -0.28264117 1.0175354 920327
-2.7416589 -0.29210833 1.0164299 1445655
-2.621901 -0.26579905 1.0288794 8487353
-1.557318 -0.28901634 1.0013473 8807736
-4.4775748 -0.21340628 1.0476155 4924700
-4.4032803 -0.24738739 1.0119817 3219222
-4.3761635 -0.22610295 1.0180988 1774370
-4.1815634 -0.24397042 1.0387504 1380121
-2.555522 -0.24740453 1.0067198 723476
-2.403481 -0.20741218 1.0269668 7682882
-4.3884706 -0.18245703 1.013018 2233627
-4.3383999 -0.19236314 1.0033457 1577239
-4.1821899 -0.19525249 1.0355783 1314073
-3.5708022 -0.15919644 1.0120627 8875418
-2.5787683 -0.1502032 1.0357087 3480590
-2.4029765 -0.16923529 1.0405383 7018246
-4.4736257 -0.14793687 1.0331091 4006680
-4.4066925 -0.13113481 1.0091829 2957343
-4.3820848 -0.11349134 1.0022051 3880517
-4.1780729 -0.14415641 1.0233967 1314321
-3.5191622 -0.1499095 1.0006338 2963299
-3.4804158 -0.14368016 1.0009174 3018799
-3.3295605 -0.14239588 1.0126282 4010793
-3.2581043 -0.10359013 1.0258226 12828336
-2.8582621 -0.10172291 1.0135266 4277293
-2.572964 -0.12871151 1.0148058 3938061
-4.2002883 -0.057955939 1.0441236 525833
-4.1822824 -0.092826158 1.0218816 986124
-2.8581114 -0.087306425 1.012291 4737553
-4.2561555 -0.013984699 1.018149 394244
-4.2347145 -0.031644616 1.0277653 656649
-3.2223845 -0.0076627191 1.0229168 3093810
-4.4021025 0.026421856 1.0171163 459792
-4.3517165 0.018073928 1.0219529 459544
-4.3082004 0.0099298768 1.0462105 394501
-3.6026649 0.018221907 1.0272603 4986383
-3.5560279 0.025018536 1.0002372 13482354
-3.2729139 0.037234154 1.0372853 7498836
-3.2261269 0.021414604 1.0241433 4146236
-4.4321547 0.071916342 1.0171962 1314315
-4.3731909 0.071277305 1.0454175 788238
-4.3488822 0.050656419 1.0420065 722705
-3.2243583 0.051466089 1.0292037 10326664
-5.600915 0.14477688 1.0082296 8417388
-5.5517759 0.11329048 1.0242524 7891833
-5.5346198 0.12952922 1.0271207 7694187
-4.4176602 0.10294147 1.0267168 920336
-4.36971 0.1165949 1.0325689 854027
-5.6010098 0.18378402 1.024859 6250843
-5.553514 0.1907272 1.0152903 6971760
-5.5292616 0.16576065 1.0356838 7694187
-4.4558029 0.17527941 1.0276306 1841958
-4.4220128 0.15191773 1.0329332 1182738
-4.3725643 0.15457374 1.038074 1116954
-1.4674735 0.19715092 1.0383414 1972239
-0.62191844 0.16910158 1.0034046 10652813
-0.55655074 0.17728631 1.0117064 14275268
-0.51608938 0.18002656 1.0240341 15657960
-0.47226921 0.18143742 1.0283135 16579317
-0.42380261 0.18495397 1.0252076 16579320
-0.37660927 0.18712161 1.0246581 16579318
-0.32565627 0.18871695 1.0229087 16513268
-0.27372232 0.19096133 1.0259237 16513010
-0.22120863 0.19293247 1.0284028 16512238
-0.17024384 0.19365697 1.0267521 16579061
-0.12434827 0.19485128 1.0321053 16578804
-0.075374395 0.19663243 1.0315106 16644597
-0.025593881 0.19660585 1.0309525 16711422
0.024991881 0.19871241 1.0257151 16579579
-5.6636734 0.2255567 1.0221648 2764087
-5.6221104 0.21657206 1.0286742 2236714
-4.4586325 0.23759012 1.0458357 1907234
-4.4252729 0.20174722 1.0433817 1183509
-4.3560705 0.20074491 1.0476105 1115918
-1.5035071 0.21616679 1.0423435 525828
-1.4821228 0.21270494 1.0381721 788998
-0.12393668 0.20202285 1.0250249 16313050
-0.073367603 0.2016869 1.0170383 16511977
-0.016647788 0.20914552 1.0149994 14801623
0.024339139 0.22336228 1.0204717 9140339
0.054989114 0.21887286 1.0444963 8346969
-5.6594148 0.27194867 1.0211921 4343384
-5.6195259 0.27680618 1.0210164 4671585
-5.5865955 0.27594841 1.039772 5131876
-1.587775 0.26009977 1.0088409 525058
-1.5110729 0.27767056 1.0335791 1116421
-1.4954991 0.28053895 1.0356551 854532
-1.3171575 0.29460627 1.0324879 4074028
-1.2974465 0.29514208 1.041225 4074787
-0.053905409 0.29851446 1.016 4467989
-0.042252511 0.29817459 1.029 4400651
0.020000745 0.25768965 1.0156686 3085074
-5.672945 0.32030213 1.0167673 5592951
-5.6339183 0.32597458 1.0284841 5921655
-0.060142647 0.33303386 1.0085101 2427651
-0.033881456 0.33135381 1.0321571 2296067
-5.6704102 0.36831617 1.0300831 7172506
-2.9102125 0.36180663 1.043534 2558465
-0.056518827 0.38069978 1.0111214 2361603
-0.030678185 0.37701729 1.0293686 1967874
-5.6620359 0.42036301 1.0290027 9804492
-5.6390357 0.43530315 1.0322976 9738706
-0.42452323 0.41874003 1.0497 16711422
-0.37036741 0.42419589 1.0470383 16711422
-0.2891897 0.43074298 1.0428033 16711422
-0.059240818 0.41928002 1.0109546 2164739
-0.034152266 0.4222874 1.0310749 2033411
0.1451136 0.44446412 1.0251404 1838595
0.18372367 0.44568661 1.0230356 1510919
0.22684769 0.44980213 1.0208166 1641478
-5.6722307 0.4665125 1.0306237 9672905
-5.635313 0.48775578 1.0051231 9737681
